# .PCD v0.7 - Point Cloud Data file format
VERSION 0.7
FIELDS x y z
SIZE 4 4 4
TYPE F F F
COUNT 1 1 1
WIDTH 1571
HEIGHT 1
VIEWPOINT 0 0 0 1 0 0 0
POINTS 1571
DATA ascii
-2.33272 3.9141469 17.760365
-2.2893233 3.8942137 17.758501
-2.7499754 3.8975766 17.844757
-2.2248652 3.8965983 17.809738
-2.1908712 3.9272246 17.825686
-2.0134163 3.929569 17.889582
-2.0222521 3.9049869 17.924503
-1.9760103 3.929697 17.95834
-2.7441611 3.8997045 18.01976
-1.985172 3.9055979 17.99328
-2.7751024 3.8624856 18.083561
-2.7409751 3.8841958 18.089447
-2.668169 3.8774869 18.156847
-2.5966642 3.8729885 18.189297
-2.5989914 3.8696606 18.189327
-2.0547438 3.8978417 18.20578
-2.3849981 3.8799884 18.234755
-2.2447174 3.8871453 18.24448
-3.3977475 4.0267549 6.0985193
-3.7497044 4.0291471 6.1459198
-3.7150965 4.0373917 6.1448488
-3.0855894 4.0431638 6.0952764
-3.9222212 4.000493 6.1865015
-3.9288588 3.9972355 6.1866789
-2.8024206 4.0746403 6.2186255
-2.7304916 4.0588446 6.2458639
-4.0230331 4.0086603 6.3303056
-4.123229 3.9828627 6.4034386
-4.0214143 4.0230155 6.4005613
-4.1523633 3.9806399 6.4394541
-4.053915 4.0197353 6.4717088
-4.2224112 3.9755704 6.5118856
-4.1917472 3.9778001 6.4796209
-4.2551394 3.9731574 6.5480247
-4.2591667 3.9728506 6.5529656
-4.2553296 3.9869621 6.6884007
-4.28758 3.9789875 6.75946
-4.044157 4.0145302 6.751544
-7.6408329 3.7891335 6.8957562
-7.815084 3.8018012 6.9500203
-7.8835034 3.7751868 6.9597669
-3.7959061 4.0258617 6.848145
-7.4972858 3.800772 7.0089388
3.999136 4.4043527 6.6020727
4.1752281 4.4129267 6.6354904
4.2041368 4.4142609 6.6447101
-3.8609409 3.9974446 6.9550328
-7.9142222 3.8006666 7.1286378
-7.4593329 3.7949831 7.0845838
3.7235501 4.3911285 6.7312098
4.3171291 4.4192677 6.6917868
-7.9822183 3.7665462 7.139142
-3.8240287 4.0069594 7.0239697
3.7238457 4.3873835 6.7340379
4.3990846 4.4225659 6.7431245
-3.8562856 3.9841397 7.0597429
4.4236069 4.4509292 6.7777863
-7.9798265 3.7831371 7.2357345
-3.7519145 4.0134339 7.0916233
3.5847249 4.3780279 6.8409448
4.4611397 4.4245458 6.8086495
-8.0149908 3.7622664 7.2716413
-3.7540088 3.9882085 7.1262975
-3.6801586 4.0041432 7.1239839
4.4902964 4.4253683 6.8450785
-3.3289855 4.0101314 7.1435184
-2.1955843 4.070168 7.1081595
-7.9758534 3.7752049 7.3405581
-7.9416189 3.7905407 7.3396225
4.5465441 4.4269958 6.9132018
3.3123121 4.3612218 6.9723134
-7.9738598 3.7623363 7.3793058
-7.9378719 3.7643454 7.4091082
4.5707946 4.4526668 6.9828601
-7.9023385 3.7652223 7.4236941
-2.8361847 4.0602303 7.2705545
4.6082258 4.4282775 7.0138617
-2.7639542 4.0645075 7.3381653
4.6282125 4.427937 7.0855236
3.0400522 4.354588 7.20995
-2.6901779 4.0618787 7.4406371
4.6155734 4.4252577 7.2260532
4.3368583 4.4396701 7.306128
-2.1960242 4.0619974 7.5291343
4.3745613 4.4115462 7.3393588
4.4094319 4.4147983 7.3381929
4.4791102 4.4224987 7.3358846
4.5141745 4.4220529 7.3346491
4.5492973 4.4205112 7.3333926
-2.6618638 4.0359545 7.6143665
-2.6526577 4.0357647 7.6490741
-2.5436575 4.0762968 7.6459517
2.7704523 4.3228908 7.4868016
-2.2608957 4.0557647 7.6756349
2.72737 4.3196883 7.5356002
2.7368553 4.3203583 7.5266709
-2.3295841 4.0711942 7.7434659
-2.2939816 4.0529776 7.730197
-2.538167 4.0620594 7.7856469
2.602309 4.3117008 7.6099091
2.6687207 4.3157701 7.5794272
4.0322533 4.3876748 7.5534277
4.0668173 4.389719 7.5413427
-2.3614941 4.0480742 7.8008399
3.9628584 4.3837209 7.570004
-2.4649837 4.0481596 7.8529129
2.4214382 4.3007574 7.6861219
3.4753308 4.389112 7.6857624
3.5118072 4.3618016 7.6840177
2.290061 4.2948365 7.7606874
2.3589158 4.3182187 7.758677
2.2906225 4.3067083 7.7959042
2.3596346 4.3270936 7.793838
2.2573369 4.2958531 7.8319173
2.2928636 4.3091774 7.8659348
2.3272619 4.3214173 7.8649402
2.2248857 4.2916751 7.903048
2.2934723 4.3201494 7.901135
2.2319326 4.2972946 7.9630542
3.4884872 4.3519154 7.9298968
2.2619624 4.3066225 7.9971962
3.4857209 4.3516955 7.9336929
2.4000618 4.2764568 8.1383848
3.3325543 4.3395805 8.1453447
2.6540139 4.3304625 8.2039862
2.6600614 4.3117929 8.2170649
3.2517118 4.3333874 8.2465649
3.199944 4.3298378 8.2899561
3.1493533 4.3265839 8.3211994
3.1836219 4.3287759 8.3006191
-2.1943948 3.9055736 15.616452
-2.1593947 3.9073982 15.616859
-2.4723642 3.8901188 15.662859
-2.2989497 3.8998744 15.628024
-2.0991621 3.9099095 15.650127
-2.6453638 3.8875031 15.738937
-2.0347254 3.9119704 15.717972
-2.7154167 3.8751988 15.776213
-2.0432925 3.9108379 15.753284
-2.7498426 3.872695 15.812408
-2.0297947 3.9108765 15.787848
-1.9785236 3.9351511 15.821503
-1.9523597 3.9129491 15.890271
-1.9539372 3.9121873 15.925344
-2.8138421 3.8659127 15.9897
-2.7760758 3.8880692 16.023792
-2.8097093 3.8647768 16.059599
-2.7404234 3.8989971 16.057758
-2.7729013 3.8727603 16.093479
-2.1086118 3.901274 16.070705
-2.0396316 3.9054372 16.04224
-2.7019098 3.8780501 16.126118
-2.6325207 3.8912439 16.123917
-2.1431344 3.8992095 16.08399
-3.1124685 3.8432999 16.350098
-2.5514805 3.8714442 16.413811
-2.4097245 3.8778584 16.465912
-3.139483 3.8519692 16.631456
-3.1728153 3.8346779 16.632324
-2.1610849 3.8887985 16.573402
-2.1254685 3.8903136 16.591503
-2.117404 3.8906422 16.596325
-3.0654223 3.8665059 16.769243
-3.1335206 3.8338957 16.779078
-1.9098901 3.8984525 16.75425
-1.8999542 3.8987842 16.764019
-2.6436327 3.8870156 16.824894
-2.6949427 3.8552735 16.861177
-2.5365436 3.8947437 16.89134
-2.6936855 3.8533068 16.966198
-2.7758837 3.8482974 17.002619
-2.6723828 3.8800988 17.000946
-2.8097606 3.8496025 17.040264
-2.7748327 3.8743129 17.074501
-2.8424952 3.8508177 17.1115
-3.2236993 3.8209581 17.203609
-3.0488918 3.8301785 17.200153
-3.0139656 3.8320408 17.19846
-3.0148385 3.8639827 17.22286
-2.9444115 3.8359144 17.186483
-3.3559337 3.8219991 17.444283
-3.2844286 3.8400588 17.512159
-2.1650991 3.8698142 17.543535
-2.1623764 3.8699992 17.541344
-3.1749303 3.8158488 17.599594
-3.1407192 3.8174031 17.611837
-2.1963394 3.8676519 17.570717
-3.0689609 3.8208339 17.628696
-2.2374444 3.8646224 17.616047
-2.9592693 3.8256688 17.675692
-2.2604604 3.8727093 17.757124
-2.8623459 3.8280976 17.812468
-2.2239416 3.8671577 17.790783
-2.2205729 3.8621271 17.790573
-2.1163459 3.8662689 17.858667
-2.0444393 3.8689578 17.914251
-2.0086927 3.8847973 17.958714
-2.0072443 3.8797898 17.993607
-2.0162828 3.8688943 17.993738
-2.4534907 3.8415468 18.223785
-3.4348614 4.0166736 6.0996466
-3.3988242 3.9917221 6.0886478
-3.4003122 4.0260177 6.0985966
-3.0490837 4.0101018 6.0853229
-3.8529012 3.9924266 6.1489043
-3.6430743 3.9785726 6.107285
-3.0139003 4.0118341 6.0910277
-3.9926116 3.9587016 6.1882505
-4.0315294 3.95596 6.2245989
-2.8010397 4.0258155 6.1827064
-4.0240092 3.9821219 6.2598176
-2.6346056 4.0280013 6.2820144
-4.1592689 3.9467657 6.3540344
-2.5881608 4.0297856 6.3154507
-2.5502706 4.0343213 6.3492355
-4.2272654 3.9421067 6.4107866
-2.4512019 4.0343361 6.4508662
-4.3609109 3.9505682 6.621407
-4.3591533 3.9622271 6.6916127
-4.4622431 3.9242864 6.6957726
-4.3926287 3.9549668 6.7276936
-2.329674 4.0368218 6.651247
-7.8666983 3.7424302 6.8807435
-7.6052241 3.7641079 6.8719583
-7.5829511 3.7574768 6.8710637
-7.9182148 3.7413254 6.9175611
-7.8498588 3.7741942 6.915731
-7.5338426 3.7594764 6.9006085
-7.9533205 3.7364824 6.9537411
-7.9518852 3.7365925 6.9518905
-7.4979467 3.7682412 6.9383388
-4.4235988 3.9451816 6.8337092
-7.9171014 3.7652674 6.9879999
-4.4901762 3.9189043 6.8983498
-4.3861876 3.9452085 6.9024658
-7.460474 3.7896273 7.0424919
-7.4220128 3.7626216 7.0406828
-4.4539924 3.9244099 6.9395165
-4.1759262 3.9674985 6.9305172
4.0365968 4.3708096 6.6196027
4.1421542 4.3760033 6.6368151
4.1756272 4.3775969 6.6450791
-4.0349731 3.9750955 6.9607453
-3.9300456 3.9788573 6.9571352
3.8287697 4.3587651 6.6795249
4.1774426 4.3776832 6.6455173
-4.2758069 3.9280965 7.0034065
-4.1377268 3.9525447 6.9989896
-3.8939068 3.9804962 6.9909301
-4.170599 3.9337988 7.034853
-4.1358685 3.9397466 7.0337386
-3.9963086 3.9512529 7.0290484
-2.2132888 4.0367851 6.9680748
4.3545933 4.3857241 6.7094178
-3.9251807 3.9539466 7.0616369
-3.8566744 3.9839191 7.0597525
-3.8891833 3.9582822 7.0954838
-8.0631676 3.7245581 7.2726822
-7.5583053 3.7861817 7.2560582
-7.4808998 3.7554331 7.25282
-3.8185856 3.9710629 7.1282649
-2.185075 4.0362492 7.072176
4.4982514 4.4092655 6.844523
-7.5204015 3.7542629 7.289217
-7.5165229 3.7528658 7.2890573
-8.0437098 3.7327471 7.3422055
-7.5541086 3.750232 7.3234591
-3.7109709 3.9544125 7.1719551
-3.2561274 3.9820054 7.1788201
-2.1727257 4.0355868 7.1397967
-2.1723564 4.0355673 7.1417842
-3.1498752 3.9830573 7.2100511
3.278074 4.3575554 6.991467
3.3145134 4.3309436 6.9897327
-3.0790765 3.9863052 7.2338524
-3.0533073 3.9874992 7.2418785
3.2806444 4.3235912 7.0140152
-7.796474 3.7634537 7.4391747
-7.761189 3.7588148 7.43786
-2.9727948 3.9925926 7.2741799
-2.9040985 4.018971 7.2722249
-7.690156 3.7409422 7.4353662
-2.9011824 3.9939709 7.3190403
-2.8134937 3.9968269 7.4088058
-2.1560452 4.0316901 7.3863797
-2.7910097 3.9973402 7.4430604
-2.1637757 4.0470262 7.4219465
-2.7757144 3.9974744 7.4775591
-2.7225659 4.0339441 7.4763241
4.6547937 4.3908281 7.2941575
4.5510187 4.4103112 7.3681898
4.3080626 4.3884358 7.4113574
4.5179935 4.3944607 7.404109
4.5528026 4.39891 7.402966
4.6232424 4.3921285 7.4003825
-2.714226 4.0105891 7.6858301
2.7563488 4.2867489 7.4989872
-2.7650943 3.9932923 7.7223492
4.5199275 4.3802652 7.4388318
2.7043025 4.2831717 7.5429883
4.2069368 4.3800397 7.5198555
-2.3056908 4.0162969 7.77672
-2.2910955 4.017395 7.7595119
2.5665271 4.2781563 7.6105876
2.6356952 4.2788215 7.5821524
-2.6404598 4.0307183 7.8237262
-2.3415134 4.01372 7.8129649
2.4630651 4.2685051 7.6481762
3.8607237 4.3426752 7.5975003
4.1046753 4.3559771 7.5702677
4.1394825 4.3578987 7.5651779
-2.3883195 4.01056 7.8495836
3.6087825 4.3285627 7.6450181
3.7212048 4.3351321 7.609663
-2.6716354 4.0022707 7.8943954
-2.4975293 4.023222 7.8886571
2.2522736 4.2559543 7.7263122
-2.6352558 3.9962063 7.9231458
2.2215745 4.2644658 7.7625651
2.1991775 4.252461 7.7631431
3.56563 4.3235631 7.7865767
2.1897736 4.2704616 7.8688807
3.5532439 4.3303409 7.8221583
2.192065 4.2690425 7.9638672
2.1603673 4.2286348 7.9885063
3.4991345 4.316648 7.9639521
2.2192667 4.2430139 8.0365372
2.3073201 4.2430444 8.0971146
2.3353975 4.254981 8.1102505
2.4464817 4.2611008 8.1619177
3.3211939 4.303947 8.1801643
3.3215358 4.303164 8.1801386
2.6501384 4.2759366 8.2259054
2.7004693 4.2661519 8.246398
2.8044851 4.2763467 8.2910748
3.0819547 4.2874951 8.341507
-2.4016883 3.8591332 15.63813
-2.2972462 3.864888 15.623361
-2.1569507 3.8720384 15.633484
-2.1246765 3.8734019 15.650395
-2.1215961 3.8776715 15.650359
-2.609659 3.8523157 15.70205
-2.0502281 3.8983283 15.718282
-2.0737178 3.874748 15.7187
-2.7475398 3.853965 15.776974
-2.7129672 3.8408363 15.741305
-2.0366189 3.8746827 15.822498
-2.0092819 3.8754756 15.855488
-2.0084448 3.8754988 15.856561
-2.8131666 3.8593919 15.919497
-1.9656738 3.8764112 15.925142
-1.9895961 3.8737876 15.996001
-2.0374908 3.8702309 16.050169
-2.3164759 3.8784578 16.112629
-2.0716519 3.8679838 16.073847
-2.7343512 3.8511152 16.161823
-2.2101269 3.8599167 16.115992
-2.8020718 3.8287187 16.198845
-2.6623375 3.8369288 16.194094
-2.6274204 3.8366568 16.188763
-2.6966681 3.8326285 16.209538
-2.904495 3.8224325 16.272392
-2.9215674 3.8196237 16.272942
-2.8353243 3.8246524 16.246485
-2.9392459 3.8186355 16.276245
-2.8343494 3.8438022 16.305338
-3.2127628 3.8028288 16.352915
-3.1134458 3.8428473 16.350126
-2.7637682 3.8568833 16.338118
-2.6621437 3.8320251 16.334133
-2.621767 3.8445051 16.367966
-2.5509548 3.8531909 16.400673
-2.4795556 3.8399951 16.416359
-2.2312005 3.8510783 16.515656
-2.1955717 3.8525867 16.534153
-3.2416811 3.7962735 16.634081
-3.2062747 3.8118947 16.668142
-3.1722119 3.8305271 16.667267
-2.0884247 3.8569801 16.59704
-3.2165215 3.7944956 16.773296
-1.9246887 3.8629966 16.729235
-3.1302407 3.8114362 16.840635
-1.8727329 3.8643954 16.797512
-2.7455778 3.8490832 16.862843
-2.9594543 3.8054163 16.904619
-2.8828819 3.8171875 16.90214
-2.8464897 3.8140333 16.935843
-1.8155463 3.864717 16.935638
-1.8150276 3.8640671 16.970646
-2.9084582 3.8054082 17.042967
-1.8288269 3.8606231 17.111206
-3.1885407 3.8127844 17.193035
-3.0134909 3.7976735 17.158516
-2.9789546 3.8254001 17.185909
-1.8318021 3.8597889 17.146326
-3.3964467 3.7907672 17.234968
-3.4594195 3.7707722 17.341932
-3.452791 3.7697675 17.411747
-3.4410896 3.769711 17.446369
-3.3882067 3.7918684 17.479937
-3.4210031 3.7700984 17.480707
-2.0227518 3.843358 17.478643
-3.2759759 3.7757542 17.58082
-2.1261821 3.8370931 17.522495
-2.1601939 3.8347709 17.550472
-2.2292943 3.8562405 17.615618
-2.1937182 3.8322034 17.59244
-2.2269967 3.8293445 17.650106
-2.2319491 3.8277261 17.720316
-2.1987631 3.8281302 17.78923
-2.1141937 3.8310564 17.866899
-2.0801878 3.8665376 17.890839
-2.9146402 3.7871828 17.988764
-2.9147174 3.7868328 17.98596
-2.0557356 3.8302925 18.064528
-2.8057044 3.8048704 18.125387
-2.0703576 3.8284316 18.121159
-2.6280553 3.8035209 18.189207
-2.557174 3.8012819 18.206808
-2.4867604 3.8047221 18.219511
-3.3623168 3.9588542 6.0790977
-3.2925296 3.9626112 6.0738149
-3.187676 3.9681594 6.0708385
-3.8507731 3.9325304 6.117672
-3.8159597 3.934449 6.1126833
-4.1581526 3.9129367 6.2983623
-2.6568217 3.992583 6.2452493
-2.6209867 3.9939878 6.2696428
-2.6216433 4.0137639 6.2813158
-2.5849955 3.9953134 6.2985349
-2.512882 3.9978976 6.3601131
-2.4883473 3.9987681 6.3814912
-4.3293328 3.9262104 6.4797516
-4.3629889 3.9224458 6.5158982
-2.4405515 4.0145698 6.4501538
-7.8834934 3.7071195 6.8532
-7.5695415 3.7518775 6.8704982
-7.4976645 3.7402887 6.9028153
-7.4792628 3.7273438 6.9019485
-7.4247475 3.7314827 6.9701772
-7.4221153 3.7290184 6.9700422
-2.2532928 4.0108118 6.7938633
-4.6285677 3.8764701 6.9097743
-4.6281056 3.8766265 6.9029551
-8.0507698 3.7092743 7.0968199
-4.5903811 3.8770804 6.981617
-4.3463311 3.9212525 7.0057583
-4.2399917 3.9207051 7.0370593
-7.3624935 3.7281129 7.1781387
-4.4127455 3.8965445 7.0777264
-7.381218 3.727845 7.2138219
-4.4813752 3.8805366 7.0979733
4.5009384 4.356504 6.8084908
-8.0799007 3.7095482 7.2730103
-8.1006727 3.6876154 7.2733617
-3.8873458 3.9458835 7.13024
3.592422 4.3077021 6.8719001
-7.5539975 3.7492998 7.3253407
-3.9538205 3.9066226 7.177537
-3.8483913 3.916548 7.1984391
4.5719013 4.3864775 6.9116187
-7.5161157 3.716615 7.3565845
-3.2882109 3.9482787 7.2143989
-3.184438 3.9740119 7.2112055
-2.149739 4.0011349 7.1754351
4.6091266 4.3597627 6.9328794
-8.0376768 3.687567 7.446321
-2.1420119 4.0001903 7.2452154
4.6455112 4.3870454 7.0141516
-8.0017748 3.6888809 7.4756141
-7.9333262 3.7229691 7.4783058
-7.6524386 3.7074637 7.4605966
3.2495487 4.2858644 7.0725112
4.6843829 4.3614874 7.0473847
-7.9305077 3.6918941 7.5127077
-7.896019 3.7024362 7.5116806
-7.8260736 3.7050433 7.5092764
-2.9693007 3.9711909 7.3437557
4.6834946 4.3761849 7.0827007
-7.7906771 3.6992784 7.5095391
-2.9328969 3.9678361 7.3774576
-2.8981419 3.9732845 7.3763323
-2.8636754 3.9842262 7.3753128
4.6844654 4.3802671 7.1177697
-3.2205079 3.9402902 7.4220901
-3.1068878 3.9672472 7.4185719
-3.0718963 3.9682014 7.4173641
-2.9314013 3.9619298 7.4123354
-2.9502006 3.9532681 7.4829125
-2.8544548 3.9583449 7.4796467
-2.1463873 3.9958909 7.4554944
3.0116947 4.2725077 7.2796025
-3.004395 3.949717 7.5197825
2.9436593 4.2648544 7.3304992
-2.7520201 3.9952946 7.5817919
-2.1739845 3.9923949 7.5614996
2.8416557 4.2578716 7.4153285
-2.8465495 3.9546978 7.6895056
4.3452535 4.3701 7.4447737
4.380559 4.3650637 7.4434495
4.4505677 4.3664708 7.4410238
4.624948 4.3822284 7.4351869
-2.8507068 3.9630132 7.7248268
-2.2220027 3.9875667 7.6810102
-2.2335105 3.9865267 7.7036171
2.7401636 4.2506304 7.5148501
4.3822703 4.3550606 7.4782529
4.6664467 4.3524027 7.4682541
-2.8851085 3.9519422 7.7275438
-2.8154376 3.9812317 7.7589383
2.7060823 4.2483411 7.5408282
4.3133798 4.354938 7.5156946
4.2447252 4.350317 7.5530534
-2.8132021 3.9838011 7.82897
-2.3161197 3.9801126 7.8114991
2.4299355 4.2318034 7.6482077
4.0719299 4.3269582 7.5937381
4.1769571 4.3288202 7.5900917
4.2072387 4.3260193 7.5889835
-2.8981686 3.9485719 7.8663754
2.2912831 4.2238259 7.685256
2.3250313 4.2510753 7.6886463
3.7238994 4.2998424 7.6337876
3.7932265 4.3038306 7.6153126
3.8629453 4.3076224 7.6080317
4.072515 4.3187857 7.5981817
-2.3904152 3.975126 7.8681664
2.2567565 4.2217631 7.6984415
-2.8440144 3.9506979 7.9030504
-2.7387106 3.9675903 7.9311824
-2.6696203 3.9864771 7.9290862
-2.4948752 3.968601 7.9226608
-2.4934945 3.968684 7.9221139
3.5854063 4.3174543 7.7157135
-2.6322968 3.9607811 7.9548655
3.6226013 4.2990184 7.7491283
2.0744901 4.2066159 7.8482008
2.0774426 4.2049627 7.8794985
2.1023614 4.2028899 7.9401479
3.5586228 4.2956429 7.9264746
3.593123 4.2878985 7.8971076
2.1337237 4.2006421 7.9806504
2.2171731 4.2196045 8.0445175
2.2638505 4.2205653 8.0746307
2.4323857 4.2268043 8.156518
2.8024514 4.2471294 8.288744
2.8517826 4.2331557 8.3056955
3.0097115 4.2513475 8.3418159
3.1004193 4.2557111 8.3307066
-2.5390356 3.8165638 15.659425
-2.3304005 3.8282003 15.622692
-2.190026 3.8353102 15.635114
-2.118377 3.83813 15.6833
-2.7465072 3.8117318 15.74118
-2.7806377 3.8020794 15.754121
-2.090817 3.8375328 15.788726
-2.0448911 3.8644283 15.822613
-2.0430548 3.8387103 15.857141
-2.0194733 3.8392823 15.891359
-2.0067818 3.8511727 15.891116
-2.8799741 3.8196173 15.956188
-2.0056169 3.8396964 15.907495
-1.9849885 3.8397555 15.960226
-1.9964503 3.8384709 15.995637
-2.9351902 3.7866597 16.132721
-2.1055174 3.8306534 16.10442
-2.3475106 3.8171439 16.147697
-2.1728501 3.8266604 16.128531
-2.1382434 3.8286834 16.117641
-2.5565546 3.8244104 16.190174
-2.9740214 3.789278 16.239225
-2.8007705 3.8265078 16.233795
-2.5897045 3.8109577 16.226141
-2.5571363 3.8046725 16.224892
-3.0772951 3.776613 16.277655
-3.0782828 3.7763612 16.277689
-3.0772946 3.7764184 16.277351
-3.008419 3.7995954 16.27564
-3.2894049 3.7638104 16.354931
-2.5860882 3.8098176 16.331091
-2.586072 3.8320765 16.366505
-3.3179824 3.7792668 16.42626
-2.2654371 3.8149369 16.483904
-2.266228 3.8372111 16.495522
-2.1700792 3.8190978 16.526878
-2.1232004 3.8211088 16.549795
-2.0881953 3.8511283 16.594624
-3.2376556 3.7873423 16.738886
-1.9287483 3.827827 16.728777
-1.8787884 3.8291206 16.797115
-3.1252654 3.7616758 16.909376
-3.0217762 3.7929969 16.906588
-2.9504137 3.7911959 16.939089
-2.8811395 3.8065872 16.936926
-1.8451444 3.8275163 16.971075
-3.0482392 3.7650928 17.117235
-3.2218151 3.756613 17.158201
-3.1867621 3.7537441 17.152819
-3.0479929 3.7829573 17.152571
-3.0134635 3.7927001 17.151524
-1.86791 3.8229201 17.146957
-3.499238 3.7360499 17.221613
-3.4648545 3.7588956 17.236818
-3.4640465 3.7660732 17.271946
-1.8875269 3.8403251 17.323111
-1.9201517 3.8168843 17.358883
-1.9209081 3.8160434 17.358894
-2.124222 3.8021719 17.525528
-3.0636308 3.750088 17.674946
-2.211267 3.7945468 17.683994
-2.9914186 3.752624 17.739323
-2.9218986 3.7899628 17.778866
-2.1481721 3.7947831 17.842541
-2.0741336 3.7963989 17.959389
-2.0741231 3.7963941 17.95969
-2.0752091 3.7956629 17.994547
-2.0722618 3.8059571 18.029654
-2.9098539 3.7637703 18.09329
-2.0714281 3.8126347 18.06477
-2.8768671 3.7511206 18.126953
-2.8731053 3.753824 18.126869
-2.6445999 3.7620804 18.189074
-3.8840897 3.8957291 6.1120019
-3.8143854 3.8995275 6.104321
-3.0459046 3.940438 6.0698018
-3.9891646 3.9181983 6.1524024
-2.9052305 3.9473977 6.0908203
-2.8414938 3.9503107 6.1127605
-4.0825891 3.8838227 6.1901174
-4.1248007 3.8809068 6.2265778
-4.1652164 3.8780861 6.2629805
-4.2271395 3.8917742 6.3354487
-4.2601256 3.8716979 6.3362584
-2.5481503 3.9714141 6.3130488
-2.472527 3.9644537 6.3803482
-4.4321628 3.8605268 6.4479933
-4.4656491 3.8755388 6.5186887
-4.5322309 3.8765845 6.6261368
-2.3655407 3.9673705 6.5190859
-2.3283298 3.9697356 6.5855875
-4.6706715 3.8431509 6.700479
-7.9414182 3.669039 6.8470688
-7.8477426 3.6744366 6.8216591
-7.7082114 3.6819723 6.8097939
-7.6380658 3.685549 6.8148065
-7.5676279 3.6928658 6.8343859
-7.9864473 3.6834998 6.8839254
-7.5319476 3.6904593 6.8482084
-7.4964991 3.6955588 6.8669748
-2.2906668 3.9685662 6.6599202
-8.1218233 3.6568575 6.9884043
-8.0532246 3.6882417 6.9914441
-7.396812 3.6952059 6.9685774
-8.0864658 3.6765871 7.0274429
-7.3872113 3.7065547 7.0034685
-8.1194582 3.6601384 7.0633497
-8.0855103 3.6809678 7.0625176
-4.7651148 3.8435137 6.9490237
-4.7305484 3.8525572 6.9479694
-7.3344526 3.6964793 7.0715141
-4.7291689 3.8488486 6.9828901
4.0064602 4.2984715 6.6520481
4.0413704 4.300343 6.649857
-4.5889921 3.8712277 7.0133977
4.322885 4.3141775 6.6966882
4.3546596 4.3156266 6.7078118
-7.3112502 3.6963539 7.1407661
-4.755641 3.8318679 7.0535927
4.3583097 4.3157892 6.7092891
4.393887 4.3173242 6.7262869
-7.3090348 3.6957941 7.1757121
3.731108 4.2924237 6.7993188
4.4652743 4.3202753 6.7669783
-8.1141987 3.6728539 7.2385483
-7.309484 3.695132 7.2087479
-8.1130905 3.6743376 7.2735686
-4.4089928 3.8702495 7.147212
3.6635785 4.2766404 6.8523612
4.5451331 4.3230147 6.8414016
-7.3757291 3.6895907 7.3157711
-4.2037249 3.8577449 7.2098746
-3.9872081 3.8908582 7.2028594
-7.5159917 3.7154837 7.3584628
-3.5312872 3.9061439 7.2221875
4.6415391 4.3260942 6.9431777
-8.0931616 3.6501484 7.4125886
-3.42485 3.8978658 7.2442441
-3.3896072 3.8995681 7.2516465
-3.3550391 3.9089029 7.2510977
3.3184698 4.278193 7.0237236
4.6457682 4.3595943 6.9786382
-3.3541231 3.9011497 7.2659454
-8.0351 3.6591823 7.4807768
-7.9986653 3.653188 7.5112271
-7.6149344 3.6738989 7.4793267
3.2183042 4.2515211 7.1318731
3.2215877 4.2480884 7.1316996
-7.8578176 3.6648245 7.5447316
-7.7182531 3.6675794 7.5263786
-7.6836829 3.6696198 7.514492
-3.2902701 3.9021156 7.388844
-3.2440927 3.933454 7.4578319
-3.2429168 3.93364 7.4928269
-2.928483 3.9515152 7.482121
3.0327687 4.2353663 7.2782273
-3.2757461 3.9140956 7.5286736
-3.2993774 3.8989217 7.5292406
2.9799411 4.2324877 7.3150597
2.9802721 4.2319045 7.3150387
-2.8212368 3.9562471 7.5485139
2.9458668 4.2296147 7.3403273
-3.2726233 3.899785 7.5983863
-2.9936323 3.9252949 7.5890517
-2.8542604 3.9403973 7.5844312
-3.2365923 3.9035215 7.6322207
-2.9222846 3.9237933 7.6215611
-2.8875711 3.9300416 7.6204538
2.8437378 4.2226939 7.4215579
4.7306519 4.3260913 7.360455
-3.2360477 3.9000385 7.6428523
-3.0955727 3.9098217 7.6624246
4.7315469 4.3220568 7.3953881
4.731915 4.3221488 7.391572
-3.1179504 3.9044747 7.733182
-2.9881325 3.9334159 7.7641654
-2.2190611 3.951957 7.711926
2.5667911 4.2045588 7.609314
4.4213023 4.3242269 7.546423
4.4913206 4.3254356 7.5439911
4.6310725 4.3333483 7.5392318
-2.9854136 3.926796 7.834023
4.2474847 4.3203416 7.5874753
4.4585061 4.3042307 7.5776076
4.6332788 4.3134699 7.5731473
-3.0190799 3.9074795 7.8454809
-2.9834032 3.9111013 7.8687167
-2.9886789 3.9086182 7.8688588
2.2929056 4.18888 7.6782937
2.327544 4.1908875 7.6683073
2.3969791 4.1948204 7.6529307
-2.8785336 3.9385192 7.9005485
2.1892426 4.1827335 7.7154512
3.7962906 4.2681599 7.6497269
-2.4634805 3.9351122 7.9209857
2.1204014 4.1785011 7.7479172
-2.4912143 3.9334073 7.9340391
2.0861392 4.1763034 7.7686982
3.6254458 4.2900009 7.8189392
3.6612458 4.2755747 7.8174386
2.0814459 4.1920848 7.9241805
3.6617148 4.2565165 7.8871608
2.0870085 4.1782818 7.9483728
3.6304972 4.2543988 7.9121404
2.1055362 4.1688838 7.9715853
2.1891758 4.1799588 8.0346079
3.5626059 4.2496881 7.9718904
2.5481744 4.1998153 8.197444
3.3254809 4.2329488 8.1952133
-2.3207021 3.7935779 15.620859
-2.5027366 3.7836051 15.643575
-2.3982861 3.7893579 15.629007
-2.1544096 3.8352692 15.650782
-2.1833024 3.8001854 15.651192
-2.6759214 3.7735684 15.69361
-2.151705 3.8013346 15.677332
-2.8483636 3.7631559 15.765033
-2.928232 3.7579741 15.816687
-2.1131682 3.8075037 15.788994
-2.1125207 3.8010528 15.797968
-2.9828174 3.7536473 15.923624
-2.0016587 3.803575 15.967595
-2.0203481 3.8013713 16.030869
-2.0336981 3.8002589 16.052237
-2.3117425 3.8109286 16.146336
-2.344413 3.7816775 16.171602
-2.239954 3.7874238 16.157331
-2.2050376 3.7892911 16.155342
-2.4472668 3.7753446 16.220539
-3.1803422 3.7370968 16.280588
-3.1803155 3.7358198 16.279364
-3.284004 3.7318246 16.31916
-2.4906583 3.7716887 16.292059
-3.3525748 3.7256072 16.356483
-2.5503621 3.7967894 16.329617
-2.3470101 3.7765954 16.427246
-3.4167807 3.7187476 16.521671
-3.3373628 3.7176554 16.79303
-3.2671361 3.7491927 16.844366
-3.2651675 3.734298 16.87907
-3.0884581 3.7508256 16.94323
-1.8644918 3.7981002 16.901178
-3.1212771 3.7253718 16.978981
-3.0851569 3.7331197 17.01288
-3.4996843 3.7097309 17.167126
-3.5187433 3.7009077 17.167643
-3.4649429 3.7041018 17.148199
-3.56726 3.6972756 17.224033
-3.5330112 3.7222314 17.238577
-3.5320816 3.7271113 17.273663
-1.9147508 3.7839272 17.217999
-1.9207448 3.8056128 17.323675
-3.3800502 3.7002509 17.57687
-2.1559279 3.7645607 17.566135
-3.2031367 3.7084112 17.633871
-2.1946685 3.7609513 17.647799
-3.0964057 3.7130139 17.684864
-3.024611 3.7214966 17.746254
-2.1459022 3.7595117 17.85417
-2.1442316 3.7595596 17.856215
-2.1032381 3.7596991 17.959877
-3.015017 3.7193873 18.026148
-3.3617556 3.6945388 18.107933
-3.3957114 3.6891322 18.10903
-3.3254511 3.6930811 18.141666
-3.3356881 3.6916378 18.142006
-2.8350914 3.7175717 18.156446
-2.5885036 3.7295449 18.204969
-2.3092816 3.7613566 18.212355
-2.4131286 3.7384808 18.217802
-3.91731 3.8590734 6.1094341
-4.0558162 3.8528695 6.1536155
-4.0578136 3.8508604 6.1536517
-4.0557508 3.8509896 6.1525803
-3.9520941 3.8571405 6.1152225
-4.090054 3.8488142 6.1721606
-2.7519817 3.9194248 6.1441302
-2.5825741 3.9260304 6.2612267
-4.3633971 3.8308635 6.3600955
-2.5465038 3.9273164 6.2924151
-4.4505467 3.8252923 6.4121971
-2.4878876 3.929363 6.3452516
-4.5340524 3.8435681 6.520535
-2.4015872 3.939919 6.4475083
-4.5678163 3.8418019 6.5567203
-4.670155 3.8113596 6.5948153
-4.6358137 3.8246975 6.5938411
-2.3645053 3.932915 6.4955373
-4.635211 3.8357699 6.6290441
-4.7438407 3.8049948 6.6673532
-7.8115196 3.641711 6.8039131
-7.777401 3.6612875 6.8061576
-7.7416725 3.6454377 6.8003302
-7.7072344 3.6597006 6.8036718
-7.6716495 3.649076 6.8018436
-4.7027321 3.8321369 6.7014127
-7.8811564 3.6378794 6.8134942
-8.1934891 3.6224456 6.8901286
-8.1582947 3.6421623 6.9242682
-7.4592843 3.658834 6.8722477
-4.8379583 3.8058066 6.8107958
-4.8385978 3.7978642 6.7794523
-4.7694187 3.83518 6.808898
-7.3879108 3.661402 6.932652
-4.8028765 3.8276203 6.844974
-7.3872228 3.6841974 6.9680524
-8.1889181 3.6257854 7.03016
-8.1521425 3.6377976 7.099144
-7.3129821 3.6727803 7.0703568
-4.9361563 3.7886977 6.9891076
-4.8328581 3.821517 6.9860525
3.9030411 4.2870493 6.6881046
3.9392185 4.2654305 6.6864667
4.0089507 4.2632852 6.6702757
4.2189708 4.2764592 6.6768594
4.215796 4.2739878 6.6769285
-4.9351172 3.789577 7.0241194
-7.2758274 3.6636994 7.1172438
-4.8302422 3.8168948 7.0559487
-7.2559853 3.6636534 7.1733031
-4.8287997 3.8119876 7.0908461
-4.7925315 3.8112292 7.1245966
4.5625386 4.2889867 6.840209
-4.7640138 3.7937586 7.1933637
4.5751176 4.2893748 6.8540878
4.591413 4.2898378 6.8742461
-4.2652488 3.8472717 7.2118478
-8.1082087 3.6491268 7.3780642
-7.4091868 3.6834898 7.3541741
4.6468124 4.3171606 6.9428406
-8.1061831 3.6331336 7.4127517
-8.1041279 3.6140113 7.4434814
-4.036201 3.8296409 7.3086247
-3.3873069 3.8786714 7.2867408
-7.5444012 3.65696 7.4635525
-3.3510506 3.8781137 7.3204947
-3.3841245 3.8635402 7.3214035
4.7205548 4.2939358 7.0119281
4.7203279 4.3195248 7.0454049
-7.6489286 3.6681669 7.5024395
4.7577491 4.2967958 7.0787382
3.2212224 4.2126169 7.1569285
-7.9601054 3.6192861 7.5606437
-7.784977 3.628345 7.5663762
-3.3470907 3.8636742 7.4146986
4.7751746 4.2941599 7.1481481
3.050385 4.2030492 7.2770543
-3.3096039 3.8915682 7.5294733
2.9981787 4.1979008 7.3138285
-3.33237 3.8615398 7.5647888
2.9470787 4.1945143 7.3505921
-2.1346681 3.9243712 7.5589566
2.913965 4.1922941 7.3756375
4.7320724 4.3215828 7.3953619
-3.2675385 3.8625126 7.6899562
-3.2271409 3.8637314 7.7363067
-3.1278505 3.9023478 7.7334929
-3.1605849 3.881005 7.7693057
-2.2164447 3.9186492 7.7368879
2.6754479 4.1833553 7.5701127
2.7101345 4.1782379 7.5503931
-3.1243393 3.8806472 7.8030629
2.5705419 4.2017517 7.6091361
4.702755 4.302896 7.5362005
4.7298627 4.2843018 7.5349321
4.6689544 4.3018279 7.5723991
-3.0514488 3.8723395 7.8704348
-3.0546389 3.870167 7.8705087
2.2600091 4.1520629 7.6850204
3.9017558 4.253758 7.6334734
4.2509704 4.2765818 7.6216359
4.2860451 4.2759385 7.620398
-2.3876898 3.9334993 7.8832717
2.1562443 4.1459656 7.7192788
3.8332999 4.2453451 7.6707616
3.937753 4.2407885 7.6400986
4.2174683 4.2555294 7.635262
4.5671558 4.2739334 7.6304364
-2.909888 3.8909094 7.9358621
-2.8758621 3.9102409 7.9350028
-2.3858719 3.9047754 7.8918238
-2.5236001 3.8963315 7.9554577
2.0275195 4.1518397 7.828486
3.8024464 4.2311254 7.773293
3.732625 4.2509165 7.8145146
3.7871089 4.229568 7.8122411
3.6984832 4.2563405 7.8508372
2.0414739 4.1424661 7.9209261
3.6281416 4.2184267 7.9577479
2.1811752 4.1460805 8.0293016
3.5313056 4.2120638 8.0244923
2.2877359 4.1678133 8.0903063
2.370683 4.158123 8.1268711
2.3946726 4.1501422 8.1331005
2.520767 4.1611509 8.179822
2.6713693 4.1787791 8.235508
3.3079691 4.2070661 8.2116976
3.2273521 4.1828423 8.261651
3.0077307 4.2009068 8.3284082
-2.288254 3.760767 15.633573
-2.2270143 3.7748408 15.646684
-2.1873548 3.7953639 15.65125
-2.7436516 3.7348421 15.704725
-2.916394 3.7330394 15.780812
-2.1480591 3.7820942 15.754746
-2.1627426 3.7642889 15.754954
-3.0527394 3.7143857 15.925399
-3.0656211 3.7103133 16.100945
-3.010319 3.745518 16.134647
-2.2724679 3.7529418 16.178997
-2.1334593 3.7582114 16.148197
-3.1455412 3.7038236 16.220041
-2.3762667 3.7502654 16.217621
-2.3414261 3.7462401 16.204121
-2.4431846 3.7577038 16.32519
-3.454741 3.6842587 16.39439
-2.3351405 3.7698131 16.42671
-2.299351 3.7441683 16.42502
-3.4979141 3.6799355 16.500923
-2.1559186 3.7500722 16.50808
-2.1294649 3.7511432 16.524292
-2.0130591 3.7775168 16.625767
-2.0053046 3.7556932 16.62512
-1.8999978 3.7618184 16.831734
-3.2201455 3.6838202 17.051796
-3.2554839 3.6853757 17.088095
-3.1863987 3.7043619 17.085999
-1.9273942 3.7516921 17.042721
-3.4991474 3.6769848 17.131512
-3.532707 3.6658909 17.1325
-3.5338926 3.6938946 17.168056
-3.6017845 3.661278 17.183985
-1.9227073 3.7752926 17.218124
-2.0035768 3.740875 17.395533
-3.5198591 3.6589212 17.527403
-3.4840977 3.6603625 17.549694
-2.086689 3.7346599 17.491827
-2.1641216 3.7289729 17.576117
-3.2714374 3.6699722 17.628597
-3.0212047 3.7017927 17.815868
-2.1456456 3.7559793 17.856197
-3.5413418 3.6498449 17.938292
-3.5056403 3.652539 17.937084
-3.0511734 3.6954894 17.956938
-3.5385392 3.6568508 18.008379
-3.399528 3.6566753 17.969072
-3.3638883 3.6581783 17.987869
-3.1035028 3.6717062 17.993401
-3.4683192 3.6768224 18.041298
-3.4336753 3.6843684 18.040213
-3.3637021 3.6864765 18.037796
-3.2925863 3.666811 18.034969
-2.1442189 3.721895 17.995697
-3.5213952 3.6481912 18.077698
-3.4669178 3.6727128 18.076204
-3.0476203 3.6955478 18.06192
-3.3965106 3.6890898 18.109055
-3.1850877 3.6667492 18.101269
-3.4639859 3.6502345 18.127464
-3.42872 3.6577594 18.144682
-3.4392877 3.65119 18.144938
-3.3946626 3.6764913 18.143812
-3.2904391 3.6936367 18.140451
-3.2551436 3.6887972 18.139132
-3.2885127 3.6795397 18.175175
-2.8344295 3.7072234 18.15975
-2.8626907 3.6810865 18.160288
-2.2046497 3.7255948 18.13801
-2.2729056 3.7117331 18.172596
-2.5164464 3.6982248 18.211617
-2.4477615 3.7292757 18.21665
-3.8885677 3.6143055 19.000834
-3.9064696 3.6101508 19.00139
-3.8536813 3.6172569 18.999666
-3.8973663 3.6099558 19.036102
-3.7819502 3.6160762 19.032167
-3.7816241 3.6248307 19.067337
-3.7432799 3.6296377 19.171175
-3.7086296 3.6370835 19.170088
-3.6033092 3.6333539 19.166336
-3.7328315 3.6152918 19.205593
-3.6725521 3.6399212 19.203909
-3.6376762 3.6430733 19.202744
-3.6025956 3.6423292 19.201502
-3.4970441 3.6342051 19.19766
-3.7053747 3.6161923 19.233379
-3.6709249 3.6315174 19.238743
-3.6342804 3.623569 19.272352
-3.460227 3.6288915 19.240524
-3.4938099 3.626353 19.280792
-4.0863266 3.8142953 6.1540227
-4.0543723 3.8162642 6.1387224
-2.866924 3.8795922 6.0795074
-4.0887814 3.8141418 6.1553068
-4.2260323 3.8255866 6.2642074
-4.2531013 3.8034189 6.2647758
-4.2255616 3.8052213 6.2461247
-4.2942319 3.8122776 6.3014002
-2.5815036 3.8941822 6.242826
-2.545804 3.9042118 6.276782
-4.499958 3.7939272 6.4133906
-4.4656506 3.7899754 6.3842955
-4.5662012 3.7834277 6.4505634
-2.3840551 3.8977818 6.4461713
-4.7218938 3.7731385 6.5609388
-4.7048554 3.7742841 6.5478516
-4.7388473 3.771951 6.5764265
-2.3391883 3.8988056 6.5146847
-2.3002119 3.8995168 6.5833974
-7.9235916 3.6006539 6.8102365
-7.9144449 3.6011608 6.8088245
-7.8804412 3.6216719 6.8090854
-2.2813215 3.8998408 6.6177754
-8.3335648 3.5788212 6.829124
-8.2283249 3.5841751 6.8372421
-8.2284727 3.5988336 6.855916
-7.9492373 3.5992312 6.814415
-8.2628546 3.6088519 6.8923249
-7.4578133 3.6240621 6.8610892
-2.2518713 3.9160714 6.687089
-7.365407 3.6275415 6.9312835
-4.969842 3.7545698 6.8495693
-7.3498597 3.6400075 6.9659848
-2.2135935 3.9006875 6.7572527
-7.3126893 3.6446292 7.0348291
-5.0405054 3.7494893 6.9570556
-2.1750972 3.9015298 6.8593163
4.0461979 4.2299461 6.6818128
4.1851172 4.2538323 6.6776567
-7.2759342 3.657141 7.1038232
-5.0384851 3.7561529 7.0271654
3.9422903 4.2239218 6.7119718
4.2916589 4.2424889 6.6979537
-8.2306051 3.5775979 7.1709256
-7.2388492 3.630496 7.1210852
-7.2387848 3.6396036 7.1372547
3.87378 4.219522 6.7539344
4.3976631 4.2474566 6.7280593
-7.2382298 3.6515746 7.1724734
-7.2020688 3.6314244 7.1726642
-4.9998198 3.7548683 7.1308885
4.5044928 4.2520103 6.7818499
4.5402846 4.2534356 6.8050451
4.5763421 4.2547278 6.835834
-7.2333765 3.6494215 7.3123994
-4.6827946 3.7910781 7.2255058
4.6126451 4.2558951 6.8736196
-7.1611037 3.6303427 7.3445745
-7.160799 3.6302586 7.3445616
-4.7502675 3.7639875 7.2624378
-8.1383209 3.5777504 7.4127269
-4.7142415 3.7595589 7.2833219
-4.6441483 3.7676356 7.2938194
4.685041 4.2583399 6.943296
-4.5728078 3.7662339 7.3263288
-4.5735002 3.7660964 7.3263512
-3.73563 3.8388686 7.2982564
-8.1031342 3.5782571 7.4817696
-7.3489389 3.6182492 7.4560442
-4.2928452 3.7807539 7.3283854
-4.1177101 3.789587 7.3458242
-4.0825882 3.7956567 7.3446999
-3.6280949 3.8155499 7.3291225
-3.5232658 3.8211102 7.325448
-3.4885652 3.8276558 7.3244457
-3.5229623 3.8211246 7.3255377
-3.4196055 3.8490388 7.3223963
-2.0765774 3.8978207 7.2762012
-7.4363718 3.6132643 7.477037
-3.4175639 3.8327456 7.3570786
3.2855599 4.1814733 7.1283174
-8.0414925 3.5801699 7.5497098
3.2577982 4.1796179 7.1491756
-8.028223 3.5806563 7.5604644
-7.9959445 3.5819075 7.583179
-7.9581609 3.5964303 7.5821033
-7.9236903 3.6072719 7.5810828
-7.8891339 3.6165154 7.5800314
-7.8541098 3.6168702 7.5788112
-7.8190799 3.6170254 7.5775871
-7.678134 3.59886 7.5671344
-3.380132 3.8323731 7.425828
-3.3466988 3.8629904 7.4251833
-2.088068 3.9174118 7.3820381
3.2236576 4.1773591 7.1734543
-7.7472086 3.594744 7.5929055
-3.3787334 3.8261266 7.4573016
4.8053856 4.2600303 7.1815386
-2.0834484 3.8934989 7.4808612
-3.3578894 3.8251331 7.5650592
4.8008552 4.2583685 7.255239
4.7974577 4.2575784 7.2868738
-2.1149795 3.8899276 7.5800962
-2.1193328 3.8894539 7.5928526
-2.1492224 3.9054179 7.6292081
-2.1334903 3.8880248 7.6283569
-3.3005972 3.8256795 7.6918821
-2.1492465 3.8865111 7.6639161
-3.194658 3.8625722 7.7701831
-2.1903412 3.8829768 7.7353616
2.7122364 4.1431499 7.5573239
-2.2135458 3.8812139 7.76367
-2.2199748 3.8807278 7.7713943
4.7627501 4.2509928 7.5332088
-3.1518631 3.8306363 7.838202
-2.247297 3.8787603 7.7991424
2.5747697 4.1345744 7.6284547
4.0425286 4.2421937 7.6283469
4.7074265 4.2591224 7.6053519
4.7234526 4.2475524 7.6045918
-3.0841238 3.8333685 7.8803191
-3.0146108 3.8606954 7.9039779
2.1291237 4.1093087 7.7281079
2.2275243 4.1149387 7.7034383
3.9043579 4.226779 7.6679544
4.3940296 4.2440295 7.6511016
4.4986858 4.2529836 7.6475902
-2.983674 3.8375211 7.93753
2.0461547 4.1142316 7.7721367
2.0639884 4.0943336 7.7613626
3.8351002 4.2336459 7.7055297
4.6744862 4.2442036 7.6451864
1.9938581 4.0863471 7.8238378
1.9831553 4.0743027 7.8736529
2.0039005 4.097043 7.8885298
1.9966123 4.0758486 7.8975315
2.132257 4.1110229 7.9948802
3.6703136 4.1932216 7.9558387
2.2142603 4.1277699 8.0451469
3.6022973 4.1811833 8.0003557
2.3415692 4.1272349 8.1066408
3.499747 4.1744757 8.0694942
3.3692129 4.1655774 8.1761103
3.3976767 4.1675258 8.1524239
-2.6037326 3.7081501 15.650623
-2.3978829 3.7204237 15.630313
-2.3634951 3.7265167 15.631214
-2.2321398 3.7472379 15.656196
-2.1835887 3.7288079 15.720044
-2.9785964 3.6859748 15.782182
-2.1810985 3.7439864 15.75525
-2.1718678 3.7280731 15.789686
-3.052386 3.6987331 15.855054
-2.1321924 3.7288227 15.858376
-2.1126039 3.7291827 15.892731
-3.0839024 3.6993351 15.961265
-3.1535211 3.6699204 16.138363
-2.0750477 3.7271085 16.101576
-3.2094922 3.6655979 16.210316
-3.1800704 3.6677315 16.179693
-3.1455657 3.6970298 16.208616
-2.1566775 3.7214243 16.174402
-2.2692914 3.7147822 16.212864
-3.2827399 3.6851962 16.283283
-2.2981856 3.709883 16.387857
-2.2981756 3.7106555 16.389372
-2.2620554 3.7111387 16.420744
-3.4461002 3.6422074 16.77873
-1.9523902 3.7214129 16.727774
-1.9420878 3.7212815 16.762445
-3.3751163 3.6425827 16.951414
-3.4632027 3.6372035 17.094542
-3.3939905 3.6537936 17.092398
-3.5678291 3.6503069 17.133463
-1.9596256 3.7207618 17.078348
-3.6344378 3.6518533 17.240921
-3.6727049 3.61867 17.38183
-2.0590291 3.7022026 17.431849
-3.5173349 3.6269248 17.551693
-3.4816585 3.625103 17.566326
-3.410852 3.6283474 17.590326
-3.3399906 3.6315618 17.615925
-3.3045061 3.6331437 17.630226
-3.2689507 3.6346884 17.646624
-3.1977124 3.6377141 17.683018
-2.2097309 3.6887896 17.717157
-3.6117702 3.6128247 17.848736
-3.5413632 3.6162696 17.861244
-3.67853 3.608418 17.942387
-3.5752196 3.6429412 17.939354
-2.1693981 3.6875393 17.890892
-3.6085839 3.6335828 17.975399
-3.3232315 3.625679 17.965273
-3.119267 3.6576271 17.958675
-3.2924068 3.6270499 17.977829
-3.2219203 3.630455 17.992632
-3.6176202 3.6087139 18.045353
-3.6045272 3.6091774 18.056816
-3.1162808 3.6684706 18.063854
-2.1715889 3.7181873 18.066658
-3.1132467 3.6558599 18.133602
-3.0085566 3.664115 18.130074
-3.1189408 3.6324456 18.168428
-2.2384176 3.7013705 18.138779
-3.4253263 3.6161854 18.179583
-3.3198156 3.6309307 18.21047
-2.8659422 3.6456923 18.168503
-2.2721653 3.6773293 18.140448
-3.3191159 3.6210506 18.215582
-2.5497482 3.6615136 18.206553
-2.3753235 3.6709268 18.192095
-3.9978139 3.5799525 18.828905
-3.9398546 3.5760384 18.861845
-4.0653801 3.5689516 18.88834
-3.9259415 3.5765343 18.873875
-4.0288715 3.5700171 18.932125
-3.890084 3.598053 18.930544
-3.9930534 3.5795977 18.968868
-3.8540227 3.5792174 18.929859
-3.9569495 3.5819354 19.002672
-3.9231324 3.605262 19.00189
-3.757169 3.5830147 18.995695
-3.929074 3.5732212 19.036583
-3.8977058 3.5742068 19.070534
-3.7109864 3.6142542 19.064678
-3.6304331 3.5883789 19.061417
-3.5604248 3.5914135 19.094049
-3.5683756 3.6128495 19.129728
-3.8113539 3.5771801 19.150541
-3.5325656 3.6207805 19.163643
-3.4327908 3.5968263 19.159744
-3.4128032 3.597208 19.19408
-3.739105 3.5796974 19.216017
-3.424154 3.6033397 19.229614
-3.4175761 3.5962772 19.229263
-3.6686537 3.5822856 19.272852
-3.4778399 3.5917265 19.301363
-3.4566669 3.5930669 19.28933
-3.5960464 3.5854561 19.305494
-3.8790736 3.7911093 6.0958185
-4.0886397 3.810667 6.1540413
-4.0528264 3.7813568 6.1295614
-2.7591937 3.8495624 6.1056485
-2.7247498 3.8851144 6.1425872
-2.5800369 3.8565936 6.2271156
-4.3969169 3.7884278 6.3396211
-4.4991221 3.753252 6.374227
-2.5077589 3.8590953 6.2933927
-4.6706343 3.7527742 6.4887271
-4.6920362 3.7409232 6.489274
-2.3987205 3.8625362 6.4106474
-4.7048726 3.7600963 6.5250859
-2.3722291 3.863255 6.4451661
-8.4757032 3.5375807 6.7584233
-8.3336353 3.5544508 6.7887702
-8.302763 3.5460725 6.7875452
-2.2879651 3.8684177 6.5824366
-8.4383307 3.5688531 6.8277173
-8.2280216 3.5676863 6.8203325
-8.1275206 3.5546875 6.8165903
-7.9128189 3.5662131 6.8019609
-7.6679807 3.5790682 6.8002133
-2.2657027 3.865515 6.6166387
-8.4021521 3.5696938 6.8614988
-7.5196738 3.5862415 6.8308787
-8.4697828 3.5354879 6.8825979
-8.4006538 3.5637872 6.8963771
-7.3867469 3.5919342 6.8963857
-7.3487353 3.593354 6.9259095
-7.3440962 3.5935183 6.9299526
-8.3274174 3.5714459 6.9990439
-8.3596649 3.5408149 7.0346799
-8.3257542 3.5623434 7.0338621
-8.3438368 3.5384722 7.069119
-8.2899637 3.5706739 7.0677848
-5.1092496 3.7240107 6.9590268
-8.2881861 3.5593746 7.1025624
-7.2756357 3.6288908 7.068295
4.0462441 4.2292428 6.6820979
-8.3031616 3.5392742 7.1377749
-5.1073813 3.7335703 7.029191
-5.0729513 3.7452116 7.0281849
3.9782808 4.1905079 6.7188482
4.2234659 4.2037992 6.6954746
4.3642716 4.2106929 6.7202902
-7.1655793 3.5983696 7.1623106
-5.1049829 3.7330439 7.099165
4.4932971 4.2164607 6.7713218
-8.2139091 3.5698161 7.240272
-5.1383214 3.7231874 7.1351962
-5.0343547 3.745225 7.1319318
-5.0674677 3.7310731 7.1678843
-7.1278872 3.6199384 7.2731662
-2.0846174 3.8656282 7.1007643
3.634762 4.1930399 6.9060874
3.7051942 4.1730409 6.8825574
4.6139283 4.2211213 6.8569627
4.6491742 4.2496595 6.9065671
-5.0277638 3.7100132 7.2712312
-8.1383066 3.5775473 7.4129233
-4.9554639 3.7113676 7.3037558
-8.1353388 3.5436754 7.4472718
-7.1934309 3.6237676 7.4156594
-7.2267146 3.6129117 7.4516721
-7.0713387 3.5978148 7.4459734
-4.7098727 3.7232311 7.3552141
3.3966396 4.1533704 7.0639873
4.7951512 4.2271109 7.0377965
-7.3296223 3.5932567 7.4899726
-7.1265306 3.5942109 7.4828758
-4.2890773 3.7447271 7.3830867
-4.254046 3.746536 7.3843932
-4.2487373 3.7468078 7.3847136
-4.1147985 3.7643259 7.3803225
-3.9405503 3.7825794 7.3745337
-3.4862242 3.8056695 7.3590193
-3.4518108 3.8176095 7.3580189
4.8181515 4.2275877 7.0754352
-7.1889553 3.5906913 7.4958115
3.2607646 4.1443281 7.1635804
-7.6419454 3.580348 7.5707541
3.2601793 4.1442885 7.164
4.833693 4.230361 7.1450052
-7.9546447 3.5483768 7.6104856
-7.7813282 3.5880029 7.6108012
-7.6931658 3.5621312 7.6072693
-7.6061411 3.5673771 7.571681
-3.3785789 3.8253677 7.4606872
4.8350573 4.2269506 7.1799321
4.8353839 4.2264667 7.1799121
-2.0459838 3.8608994 7.4496617
3.089066 4.1332068 7.2736025
2.9325075 4.1228547 7.3849077
2.85024 4.1173248 7.44805
-2.1103106 3.8543231 7.6620007
-2.1091659 3.853483 7.6619463
-2.1101875 3.8533857 7.6641827
-3.2249091 3.7939889 7.8050981
-2.1780965 3.8477948 7.769362
-2.1765614 3.8479102 7.7675085
2.5407205 4.1249781 7.6438961
2.6460485 4.1034513 7.6124115
2.5771201 4.0992622 7.6423802
-2.3200099 3.8382359 7.8792682
-2.2785478 3.8409185 7.8528376
2.4037354 4.089325 7.6867175
4.1161165 4.1980457 7.6600456
4.7103028 4.2269478 7.6397324
-2.3804939 3.8343511 7.9163523
-2.3470027 3.8364904 7.896399
2.0328708 4.0939445 7.7801623
2.0654097 4.0581427 7.761291
3.9418685 4.2023497 7.7012539
4.6061311 4.2313647 7.6784883
3.979248 4.1804194 7.7346034
4.6082668 4.2045212 7.6993742
-2.5536473 3.8238523 7.9903007
-2.762831 3.8124943 8.0112429
3.9471955 4.1678724 7.8043752
1.9621774 4.047277 7.877727
1.9715803 4.0569348 7.8804669
1.9957762 4.0650735 7.9032803
3.8520293 4.1614485 7.8788648
2.0662041 4.1015525 7.9534898
3.7394471 4.1887512 7.9183092
3.742173 4.1544175 7.94485
2.2683263 4.0672536 8.0518236
2.2781761 4.0900612 8.064784
3.5690985 4.1639643 8.0289488
3.6391807 4.1479325 8.001296
3.4666958 4.157279 8.1024876
2.7088082 4.1057711 8.2318449
2.7328091 4.1163135 8.2437944
3.1666362 4.1383624 8.278429
-3.1719024 3.6568155 15.368057
-3.13749 3.6687555 15.367054
-3.0677583 3.6754577 15.364728
-3.0324104 3.66962 15.36339
-2.9968936 3.6605868 15.361991
-3.1006978 3.6805682 15.436034
-3.2731302 3.6503158 15.476588
-3.2041543 3.6714001 15.474532
-3.2719433 3.6503015 15.511578
-3.237335 3.6585462 15.510508
-3.23544 3.6450503 15.545245
-3.1654451 3.6456878 15.541203
-3.2350516 3.6418397 15.551682
-3.2001977 3.6437383 15.547893
-2.3357067 3.7054136 15.637185
-2.2988412 3.7074797 15.645741
-2.277966 3.6892748 15.65931
-2.7408605 3.6652753 15.677913
-2.8446207 3.6591773 15.712272
-3.1467628 3.6412258 15.822338
-3.0866306 3.6610394 15.820571
-3.0524113 3.6766748 15.819645
-3.2995985 3.6324437 15.862573
-2.1756396 3.691843 15.834541
-2.1603026 3.6921775 15.858732
-3.3274043 3.6427341 15.933788
-3.2229595 3.6556828 15.930352
-2.1387119 3.6944468 15.893048
-3.3609517 3.6368713 15.969898
-3.2216842 3.653971 15.965313
-2.1384859 3.692584 15.896811
-2.1239214 3.6927512 15.927534
-2.1019468 3.7067595 15.962038
-3.3937621 3.6245124 16.017578
-3.1498854 3.6664376 16.033079
-2.0943296 3.6929646 15.996567
-3.2879038 3.629555 16.043488
-2.071646 3.6934898 16.030815
-3.1808567 3.6566529 16.139093
-3.1801324 3.6654289 16.17425
-2.0954254 3.6903493 16.128784
-2.1290262 3.6878197 16.168554
-2.1339684 3.687474 16.173027
-2.2692568 3.7143753 16.213257
-3.3846548 3.619926 16.279224
-3.3504758 3.6221647 16.256048
-2.1974525 3.6833773 16.212917
-3.4532287 3.61799 16.323133
-3.4572918 3.6152713 16.323231
-2.2655249 3.6787577 16.267466
-3.4878643 3.6328018 16.359636
-3.5998039 3.60568 16.433155
-3.5558414 3.6378579 16.432167
-3.6229856 3.6044745 16.468977
-3.5890851 3.6262031 16.468164
-2.2254019 3.6780026 16.415087
-2.2254579 3.6830866 16.421383
-2.1893404 3.6792927 16.445982
-2.1807375 3.6795723 16.454794
-3.6048191 3.6027036 16.57341
-2.0809944 3.6830819 16.543343
-2.0403838 3.6843038 16.590088
-3.4773839 3.6363716 16.674625
-2.0095747 3.7111993 16.624508
-2.0151043 3.6849666 16.624249
-1.9967142 3.6852639 16.658642
-3.4704452 3.6171267 16.849218
-3.4689288 3.6108201 16.88409
-3.4333911 3.6239455 16.918098
-1.9654348 3.6959765 16.867931
-3.3975279 3.6308775 16.952
-1.9977812 3.680078 16.923746
-1.9994537 3.6796966 16.938906
-1.9963747 3.6855915 16.973934
-3.4848371 3.5995779 17.059622
-3.5668375 3.6088734 17.097687
-3.6690125 3.6204507 17.206564
-3.7016807 3.5978105 17.242346
-2.0446656 3.6698446 17.325687
-3.657599 3.5836861 17.485796
-3.585849 3.5850923 17.534756
-3.5501845 3.5865831 17.554251
-2.1852238 3.6618533 17.575705
-2.1870015 3.6575527 17.575695
-3.3374453 3.5961525 17.635448
-3.1594441 3.6200023 17.749241
-2.2232647 3.6529183 17.71702
-3.6473072 3.5908511 17.800852
-3.6119494 3.5787857 17.790001
-3.7507217 3.5808835 17.839338
-3.6468766 3.6052191 17.836119
-3.6119626 3.607671 17.834938
-3.5408123 3.5818636 17.8235
-3.7152419 3.5951076 17.873373
-3.6807818 3.606149 17.872355
-3.505651 3.6076233 17.866245
-3.714083 3.5955932 17.908375
-3.4342155 3.604424 17.898726
-3.3631148 3.6076162 17.931328
-3.3274567 3.595886 17.929874
-3.2922766 3.593245 17.928598
-3.2573919 3.5947387 17.9251
-3.2573695 3.5957968 17.92742
-3.1883628 3.616282 17.925354
-2.2385111 3.6580517 18.067972
-2.2383018 3.6766148 18.103315
-3.4527614 3.579591 18.179213
-3.0393648 3.6061184 18.165192
-3.4230285 3.5808997 18.192009
-3.1428225 3.5969498 18.203691
-3.0390263 3.6014748 18.167902
-2.3741462 3.6362062 18.17234
-2.339793 3.6383564 18.154156
-3.3522389 3.5841527 18.215509
-3.3170161 3.5858645 18.222317
-3.2819157 3.5876386 18.225616
-3.2469194 3.5894656 18.225925
-2.4782939 3.6303017 18.195606
-4.1743484 3.537571 18.729261
-4.1917853 3.5302372 18.729748
-4.1398296 3.5475135 18.728224
-4.1468978 3.5305836 18.833281
-3.8892674 3.5433865 18.868822
-3.5330226 3.5843532 19.09297
-3.4142137 3.5640121 19.088455
-3.4619322 3.5877459 19.125572
-3.4260116 3.5935802 19.159445
-3.3817079 3.5637038 19.192413
-3.3851829 3.5628414 19.227554
-3.6636181 3.5473988 19.272076
-3.4551313 3.5577767 19.299984
-3.4202747 3.5600619 19.276178
-3.559227 3.5522351 19.304634
-3.9818099 3.7505603 6.1063266
-3.9470155 3.7524893 6.1008382
-2.8636932 3.8099022 6.065486
-4.0857587 3.7445564 6.1352897
-4.2233458 3.7360432 6.2029204
-2.5787101 3.821991 6.2119617
-2.5422401 3.8233526 6.2402363
-4.7386317 3.7131138 6.4904284
-4.7384682 3.7036977 6.4804521
-4.8411546 3.7087247 6.5640106
-4.8632879 3.6955335 6.564559
-4.9070988 3.6925323 6.6010747
-8.5290813 3.4997966 6.759644
-8.4385424 3.5052731 6.7216344
-8.4038725 3.5347788 6.7558608
-8.3396873 3.5098391 6.7531848
-4.9474154 3.6897171 6.6374717
-8.298048 3.5440192 6.7873464
-4.9769607 3.6876462 6.6644959
-2.2737739 3.830811 6.5812922
-8.5063143 3.5288923 6.8294129
-8.5287437 3.4984586 6.8296766
-7.6631293 3.5443585 6.800149
-5.0255513 3.6842184 6.7101798
-8.5100565 3.4987721 6.8640604
